 -0.15789474E+001 -0.13469388E+001  0.63909555E+001  0.11245358E-022
 -0.15789474E+001 -0.13469388E+001  0.65648918E+001  0.20506013E-022
 -0.15789474E+001 -0.13469388E+001  0.67388281E+001  0.37392801E-022
 -0.15789474E+001 -0.13469388E+001  0.69127644E+001  0.68185811E-022
 -0.15789474E+001 -0.13469388E+001  0.70867007E+001  0.12433675E-021
 -0.15789474E+001 -0.13469388E+001  0.72606370E+001  0.22672774E-021
 -0.15789474E+001 -0.13469388E+001  0.74345733E+001  0.41343722E-021
 -0.15789474E+001 -0.13469388E+001  0.76085096E+001  0.75390103E-021
 -0.15789474E+001 -0.13469388E+001  0.77824459E+001  0.13747350E-020
 -0.15789474E+001 -0.13469388E+001  0.79563822E+001  0.25068226E-020
 -0.15789474E+001 -0.13469388E+001  0.81303185E+001  0.45711781E-020
 -0.15789474E+001 -0.13469388E+001  0.83042548E+001  0.83355191E-020
 -0.15789474E+001 -0.13469388E+001  0.84781911E+001  0.15199775E-019
 -0.15789474E+001 -0.13469388E+001  0.86521274E+001  0.27716707E-019
 -0.15789474E+001 -0.13469388E+001  0.88260637E+001  0.50541263E-019
 -0.15789474E+001 -0.13469388E+001  0.90000000E+001  0.92161717E-019

 -0.15789474E+001 -0.11020408E+001  0.47712125E+000 -0.28550605E-030
 -0.15789474E+001 -0.11020408E+001  0.65105756E+000 -0.33969236E-030
 -0.15789474E+001 -0.11020408E+001  0.82499386E+000 -0.39838761E-030
 -0.15789474E+001 -0.11020408E+001  0.99893016E+000 -0.45641138E-030
 -0.15789474E+001 -0.11020408E+001  0.11728665E+001 -0.50234545E-030
 -0.15789474E+001 -0.11020408E+001  0.13468028E+001 -0.51295978E-030
 -0.15789474E+001 -0.11020408E+001  0.15207391E+001 -0.44295153E-030
 -0.15789474E+001 -0.11020408E+001  0.16946754E+001 -0.20611568E-030
 -0.15789474E+001 -0.11020408E+001  0.18686117E+001  0.35913484E-030
 -0.15789474E+001 -0.11020408E+001  0.20425480E+001  0.15528198E-029
 -0.15789474E+001 -0.11020408E+001  0.22164843E+001  0.39285798E-029
 -0.15789474E+001 -0.11020408E+001  0.23904206E+001  0.85039859E-029
 -0.15789474E+001 -0.11020408E+001  0.25643569E+001  0.17144359E-028
 -0.15789474E+001 -0.11020408E+001  0.27382932E+001  0.33263056E-028
 -0.15789474E+001 -0.11020408E+001  0.29122295E+001  0.63098923E-028
 -0.15789474E+001 -0.11020408E+001  0.30861658E+001  0.11804630E-027
 -0.15789474E+001 -0.11020408E+001  0.32601021E+001  0.21890453E-027
 -0.15789474E+001 -0.11020408E+001  0.34340384E+001  0.40362768E-027
 -0.15789474E+001 -0.11020408E+001  0.36079747E+001  0.74145737E-027
 -0.15789474E+001 -0.11020408E+001  0.37819110E+001  0.13586950E-026
 -0.15789474E+001 -0.11020408E+001  0.39558473E+001  0.24856993E-026
 -0.15789474E+001 -0.11020408E+001  0.41297836E+001  0.45425870E-026
 -0.15789474E+001 -0.11020408E+001  0.43037199E+001  0.82955115E-026
 -0.15789474E+001 -0.11020408E+001  0.44776562E+001  0.15141638E-025
 -0.15789474E+001 -0.11020408E+001  0.46515925E+001  0.27628796E-025
 -0.15789474E+001 -0.11020408E+001  0.48255288E+001  0.50403075E-025
 -0.15789474E+001 -0.11020408E+001  0.49994651E+001  0.91936750E-025
 -0.15789474E+001 -0.11020408E+001  0.51734014E+001  0.16767917E-024
 -0.15789474E+001 -0.11020408E+001  0.53473377E+001  0.30580237E-024
 -0.15789474E+001 -0.11020408E+001  0.55212740E+001  0.55767820E-024
 -0.15789474E+001 -0.11020408E+001  0.56952103E+001  0.10169833E-023
 -0.15789474E+001 -0.11020408E+001  0.58691466E+001  0.18545370E-023
 -0.15789474E+001 -0.11020408E+001  0.60430829E+001  0.33818278E-023
 -0.15789474E+001 -0.11020408E+001  0.62170192E+001  0.61668541E-023
 -0.15789474E+001 -0.11020408E+001  0.63909555E+001  0.11245358E-022
 -0.15789474E+001 -0.11020408E+001  0.65648918E+001  0.20506013E-022
 -0.15789474E+001 -0.11020408E+001  0.67388281E+001  0.37392801E-022
 -0.15789474E+001 -0.11020408E+001  0.69127644E+001  0.68185811E-022
 -0.15789474E+001 -0.11020408E+001  0.70867007E+001  0.12433675E-021
 -0.15789474E+001 -0.11020408E+001  0.72606370E+001  0.22672774E-021
 -0.15789474E+001 -0.11020408E+001  0.74345733E+001  0.41343722E-021
 -0.15789474E+001 -0.11020408E+001  0.76085096E+001  0.75390103E-021
 -0.15789474E+001 -0.11020408E+001  0.77824459E+001  0.13747350E-020
 -0.15789474E+001 -0.11020408E+001  0.79563822E+001  0.25068225E-020
 -0.15789474E+001 -0.11020408E+001  0.81303185E+001  0.45711780E-020
 -0.15789474E+001 -0.11020408E+001  0.83042548E+001  0.83355191E-020
 -0.15789474E+001 -0.11020408E+001  0.84781911E+001  0.15199774E-019
 -0.15789474E+001 -0.11020408E+001  0.86521274E+001  0.27716706E-019
 -0.15789474E+001 -0.11020408E+001  0.88260637E+001  0.50541263E-019
 -0.15789474E+001 -0.11020408E+001  0.90000000E+001  0.92161717E-019

 -0.15789474E+001 -0.85714286E+000  0.47712125E+000 -0.28550605E-030
 -0.15789474E+001 -0.85714286E+000  0.65105756E+000 -0.33969236E-030
 -0.15789474E+001 -0.85714286E+000  0.82499386E+000 -0.39838761E-030
 -0.15789474E+001 -0.85714286E+000  0.99893016E+000 -0.45641139E-030
 -0.15789474E+001 -0.85714286E+000  0.11728665E+001 -0.50234545E-030
 -0.15789474E+001 -0.85714286E+000  0.13468028E+001 -0.51295979E-030
 -0.15789474E+001 -0.85714286E+000  0.15207391E+001 -0.44295154E-030
 -0.15789474E+001 -0.85714286E+000  0.16946754E+001 -0.20611569E-030
 -0.15789474E+001 -0.85714286E+000  0.18686117E+001  0.35913484E-030
 -0.15789474E+001 -0.85714286E+000  0.20425480E+001  0.15528198E-029
 -0.15789474E+001 -0.85714286E+000  0.22164843E+001  0.39285798E-029
 -0.15789474E+001 -0.85714286E+000  0.23904206E+001  0.85039859E-029
 -0.15789474E+001 -0.85714286E+000  0.25643569E+001  0.17144359E-028
 -0.15789474E+001 -0.85714286E+000  0.27382932E+001  0.33263056E-028
 -0.15789474E+001 -0.85714286E+000  0.29122295E+001  0.63098923E-028
 -0.15789474E+001 -0.85714286E+000  0.30861658E+001  0.11804630E-027
 -0.15789474E+001 -0.85714286E+000  0.32601021E+001  0.21890453E-027
 -0.15789474E+001 -0.85714286E+000  0.34340384E+001  0.40362768E-027
 -0.15789474E+001 -0.85714286E+000  0.36079747E+001  0.74145737E-027
 -0.15789474E+001 -0.85714286E+000  0.37819110E+001  0.13586950E-026
 -0.15789474E+001 -0.85714286E+000  0.39558473E+001  0.24856993E-026
 -0.15789474E+001 -0.85714286E+000  0.41297836E+001  0.45425870E-026
 -0.15789474E+001 -0.85714286E+000  0.43037199E+001  0.82955115E-026
 -0.15789474E+001 -0.85714286E+000  0.44776562E+001  0.15141638E-025
 -0.15789474E+001 -0.85714286E+000  0.46515925E+001  0.27628796E-025
 -0.15789474E+001 -0.85714286E+000  0.48255288E+001  0.50403075E-025
 -0.15789474E+001 -0.85714286E+000  0.49994651E+001  0.91936750E-025
 -0.15789474E+001 -0.85714286E+000  0.51734014E+001  0.16767917E-024
 -0.15789474E+001 -0.85714286E+000  0.53473377E+001  0.30580237E-024
 -0.15789474E+001 -0.85714286E+000  0.55212740E+001  0.55767820E-024
 -0.15789474E+001 -0.85714286E+000  0.56952103E+001  0.10169833E-023
 -0.15789474E+001 -0.85714286E+000  0.58691466E+001  0.18545370E-023
 -0.15789474E+001 -0.85714286E+000  0.60430829E+001  0.33818278E-023
 -0.15789474E+001 -0.85714286E+000  0.62170192E+001  0.61668541E-023
 -0.15789474E+001 -0.85714286E+000  0.63909555E+001  0.11245358E-022
 -0.15789474E+001 -0.85714286E+000  0.65648918E+001  0.20506013E-022
 -0.15789474E+001 -0.85714286E+000  0.67388281E+001  0.37392801E-022
 -0.15789474E+001 -0.85714286E+000  0.69127644E+001  0.68185811E-022
 -0.15789474E+001 -0.85714286E+000  0.70867007E+001  0.12433675E-021
 -0.15789474E+001 -0.85714286E+000  0.72606370E+001  0.22672774E-021
 -0.15789474E+001 -0.85714286E+000  0.74345733E+001  0.41343722E-021
 -0.15789474E+001 -0.85714286E+000  0.76085096E+001  0.75390103E-021
 -0.15789474E+001 -0.85714286E+000  0.77824459E+001  0.13747350E-020
 -0.15789474E+001 -0.85714286E+000  0.79563822E+001  0.25068225E-020
 -0.15789474E+001 -0.85714286E+000  0.81303185E+001  0.45711780E-020
 -0.15789474E+001 -0.85714286E+000  0.83042548E+001  0.83355190E-020
 -0.15789474E+001 -0.85714286E+000  0.84781911E+001  0.15199774E-019
 -0.15789474E+001 -0.85714286E+000  0.86521274E+001  0.27716706E-019
 -0.15789474E+001 -0.85714286E+000  0.88260637E+001  0.50541263E-019
 -0.15789474E+001 -0.85714286E+000  0.90000000E+001  0.92161716E-019

 -0.15789474E+001 -0.61224490E+000  0.47712125E+000 -0.28550605E-030
 -0.15789474E+001 -0.61224490E+000  0.65105756E+000 -0.33969236E-030
 -0.15789474E+001 -0.61224490E+000  0.82499386E+000 -0.39838761E-030
 -0.15789474E+001 -0.61224490E+000  0.99893016E+000 -0.45641139E-030
 -0.15789474E+001 -0.61224490E+000  0.11728665E+001 -0.50234545E-030
 -0.15789474E+001 -0.61224490E+000  0.13468028E+001 -0.51295979E-030
 -0.15789474E+001 -0.61224490E+000  0.15207391E+001 -0.44295154E-030
 -0.15789474E+001 -0.61224490E+000  0.16946754E+001 -0.20611569E-030
 -0.15789474E+001 -0.61224490E+000  0.18686117E+001  0.35913484E-030
 -0.15789474E+001 -0.61224490E+000  0.20425480E+001  0.15528198E-029
 -0.15789474E+001 -0.61224490E+000  0.22164843E+001  0.39285798E-029
 -0.15789474E+001 -0.61224490E+000  0.23904206E+001  0.85039859E-029
 -0.15789474E+001 -0.61224490E+000  0.25643569E+001  0.17144359E-028
 -0.15789474E+001 -0.61224490E+000  0.27382932E+001  0.33263056E-028
 -0.15789474E+001 -0.61224490E+000  0.29122295E+001  0.63098923E-028
 -0.15789474E+001 -0.61224490E+000  0.30861658E+001  0.11804630E-027
 -0.15789474E+001 -0.61224490E+000  0.32601021E+001  0.21890453E-027
 -0.15789474E+001 -0.61224490E+000  0.34340384E+001  0.40362768E-027
 -0.15789474E+001 -0.61224490E+000  0.36079747E+001  0.74145737E-027
 -0.15789474E+001 -0.61224490E+000  0.37819110E+001  0.13586950E-026
 -0.15789474E+001 -0.61224490E+000  0.39558473E+001  0.24856993E-026
 -0.15789474E+001 -0.61224490E+000  0.41297836E+001  0.45425870E-026
 -0.15789474E+001 -0.61224490E+000  0.43037199E+001  0.82955115E-026
 -0.15789474E+001 -0.61224490E+000  0.44776562E+001  0.15141638E-025
 -0.15789474E+001 -0.61224490E+000  0.46515925E+001  0.27628796E-025
 -0.15789474E+001 -0.61224490E+000  0.48255288E+001  0.50403075E-025
 -0.15789474E+001 -0.61224490E+000  0.49994651E+001  0.91936750E-025
 -0.15789474E+001 -0.61224490E+000  0.51734014E+001  0.16767917E-024
 -0.15789474E+001 -0.61224490E+000  0.53473377E+001  0.30580237E-024
 -0.15789474E+001 -0.61224490E+000  0.55212740E+001  0.55767820E-024
 -0.15789474E+001 -0.61224490E+000  0.56952103E+001  0.10169833E-023
 -0.15789474E+001 -0.61224490E+000  0.58691466E+001  0.18545370E-023
 -0.15789474E+001 -0.61224490E+000  0.60430829E+001  0.33818278E-023
 -0.15789474E+001 -0.61224490E+000  0.62170192E+001  0.61668541E-023
 -0.15789474E+001 -0.61224490E+000  0.63909555E+001  0.11245358E-022
 -0.15789474E+001 -0.61224490E+000  0.65648918E+001  0.20506013E-022
 -0.15789474E+001 -0.61224490E+000  0.67388281E+001  0.37392801E-022
 -0.15789474E+001 -0.61224490E+000  0.69127644E+001  0.68185810E-022
 -0.15789474E+001 -0.61224490E+000  0.70867007E+001  0.12433675E-021
 -0.15789474E+001 -0.61224490E+000  0.72606370E+001  0.22672774E-021
 -0.15789474E+001 -0.61224490E+000  0.74345733E+001  0.41343722E-021
 -0.15789474E+001 -0.61224490E+000  0.76085096E+001  0.75390102E-021
 -0.15789474E+001 -0.61224490E+000  0.77824459E+001  0.13747350E-020
 -0.15789474E+001 -0.61224490E+000  0.79563822E+001  0.25068225E-020
 -0.15789474E+001 -0.61224490E+000  0.81303185E+001  0.45711779E-020
 -0.15789474E+001 -0.61224490E+000  0.83042548E+001  0.83355189E-020
 -0.15789474E+001 -0.61224490E+000  0.84781911E+001  0.15199774E-019
 -0.15789474E+001 -0.61224490E+000  0.86521274E+001  0.27716706E-019
 -0.15789474E+001 -0.61224490E+000  0.88260637E+001  0.50541262E-019
 -0.15789474E+001 -0.61224490E+000  0.90000000E+001  0.92161715E-019

 -0.15789474E+001 -0.36734694E+000  0.47712125E+000 -0.28550605E-030
 -0.15789474E+001 -0.36734694E+000  0.65105756E+000 -0.33969237E-030
 -0.15789474E+001 -0.36734694E+000  0.82499386E+000 -0.39838761E-030
 -0.15789474E+001 -0.36734694E+000  0.99893016E+000 -0.45641139E-030
 -0.15789474E+001 -0.36734694E+000  0.11728665E+001 -0.50234546E-030
 -0.15789474E+001 -0.36734694E+000  0.13468028E+001 -0.51295979E-030
 -0.15789474E+001 -0.36734694E+000  0.15207391E+001 -0.44295154E-030
 -0.15789474E+001 -0.36734694E+000  0.16946754E+001 -0.20611569E-030
 -0.15789474E+001 -0.36734694E+000  0.18686117E+001  0.35913484E-030
 -0.15789474E+001 -0.36734694E+000  0.20425480E+001  0.15528198E-029
 -0.15789474E+001 -0.36734694E+000  0.22164843E+001  0.39285798E-029
 -0.15789474E+001 -0.36734694E+000  0.23904206E+001  0.85039859E-029
 -0.15789474E+001 -0.36734694E+000  0.25643569E+001  0.17144359E-028
 -0.15789474E+001 -0.36734694E+000  0.27382932E+001  0.33263056E-028
 -0.15789474E+001 -0.36734694E+000  0.29122295E+001  0.63098923E-028
 -0.15789474E+001 -0.36734694E+000  0.30861658E+001  0.11804630E-027
 -0.15789474E+001 -0.36734694E+000  0.32601021E+001  0.21890453E-027
 -0.15789474E+001 -0.36734694E+000  0.34340384E+001  0.40362768E-027
 -0.15789474E+001 -0.36734694E+000  0.36079747E+001  0.74145737E-027
 -0.15789474E+001 -0.36734694E+000  0.37819110E+001  0.13586950E-026
 -0.15789474E+001 -0.36734694E+000  0.39558473E+001  0.24856993E-026
 -0.15789474E+001 -0.36734694E+000  0.41297836E+001  0.45425870E-026
 -0.15789474E+001 -0.36734694E+000  0.43037199E+001  0.82955115E-026
 -0.15789474E+001 -0.36734694E+000  0.44776562E+001  0.15141638E-025
 -0.15789474E+001 -0.36734694E+000  0.46515925E+001  0.27628796E-025
 -0.15789474E+001 -0.36734694E+000  0.48255288E+001  0.50403075E-025
 -0.15789474E+001 -0.36734694E+000  0.49994651E+001  0.91936750E-025
 -0.15789474E+001 -0.36734694E+000  0.51734014E+001  0.16767917E-024
 -0.15789474E+001 -0.36734694E+000  0.53473377E+001  0.30580237E-024
 -0.15789474E+001 -0.36734694E+000  0.55212740E+001  0.55767820E-024
 -0.15789474E+001 -0.36734694E+000  0.56952103E+001  0.10169833E-023
 -0.15789474E+001 -0.36734694E+000  0.58691466E+001  0.18545370E-023
 -0.15789474E+001 -0.36734694E+000  0.60430829E+001  0.33818278E-023
 -0.15789474E+001 -0.36734694E+000  0.62170192E+001  0.61668541E-023
 -0.15789474E+001 -0.36734694E+000  0.63909555E+001  0.11245358E-022
 -0.15789474E+001 -0.36734694E+000  0.65648918E+001  0.20506013E-022
 -0.15789474E+001 -0.36734694E+000  0.67388281E+001  0.37392801E-022
 -0.15789474E+001 -0.36734694E+000  0.69127644E+001  0.68185810E-022
 -0.15789474E+001 -0.36734694E+000  0.70867007E+001  0.12433675E-021
 -0.15789474E+001 -0.36734694E+000  0.72606370E+001  0.22672773E-021
 -0.15789474E+001 -0.36734694E+000  0.74345733E+001  0.41343721E-021
 -0.15789474E+001 -0.36734694E+000  0.76085096E+001  0.75390101E-021
 -0.15789474E+001 -0.36734694E+000  0.77824459E+001  0.13747350E-020
 -0.15789474E+001 -0.36734694E+000  0.79563822E+001  0.25068225E-020
 -0.15789474E+001 -0.36734694E+000  0.81303185E+001  0.45711779E-020
 -0.15789474E+001 -0.36734694E+000  0.83042548E+001  0.83355188E-020
 -0.15789474E+001 -0.36734694E+000  0.84781911E+001  0.15199774E-019
 -0.15789474E+001 -0.36734694E+000  0.86521274E+001  0.27716705E-019
 -0.15789474E+001 -0.36734694E+000  0.88260637E+001  0.50541262E-019
 -0.15789474E+001 -0.36734694E+000  0.90000000E+001  0.92161714E-019

 -0.15789474E+001 -0.12244898E+000  0.47712125E+000 -0.28550605E-030
 -0.15789474E+001 -0.12244898E+000  0.65105756E+000 -0.33969237E-030
 -0.15789474E+001 -0.12244898E+000  0.82499386E+000 -0.39838762E-030
 -0.15789474E+001 -0.12244898E+000  0.99893016E+000 -0.45641139E-030
 -0.15789474E+001 -0.12244898E+000  0.11728665E+001 -0.50234546E-030
 -0.15789474E+001 -0.12244898E+000  0.13468028E+001 -0.51295979E-030
 -0.15789474E+001 -0.12244898E+000  0.15207391E+001 -0.44295154E-030
 -0.15789474E+001 -0.12244898E+000  0.16946754E+001 -0.20611569E-030
 -0.15789474E+001 -0.12244898E+000  0.18686117E+001  0.35913484E-030
 -0.15789474E+001 -0.12244898E+000  0.20425480E+001  0.15528198E-029
 -0.15789474E+001 -0.12244898E+000  0.22164843E+001  0.39285798E-029
 -0.15789474E+001 -0.12244898E+000  0.23904206E+001  0.85039859E-029
 -0.15789474E+001 -0.12244898E+000  0.25643569E+001  0.17144359E-028
 -0.15789474E+001 -0.12244898E+000  0.27382932E+001  0.33263056E-028
 -0.15789474E+001 -0.12244898E+000  0.29122295E+001  0.63098923E-028
 -0.15789474E+001 -0.12244898E+000  0.30861658E+001  0.11804630E-027
 -0.15789474E+001 -0.12244898E+000  0.32601021E+001  0.21890453E-027
 -0.15789474E+001 -0.12244898E+000  0.34340384E+001  0.40362768E-027
 -0.15789474E+001 -0.12244898E+000  0.36079747E+001  0.74145737E-027
 -0.15789474E+001 -0.12244898E+000  0.37819110E+001  0.13586950E-026
 -0.15789474E+001 -0.12244898E+000  0.39558473E+001  0.24856993E-026
 -0.15789474E+001 -0.12244898E+000  0.41297836E+001  0.45425870E-026
 -0.15789474E+001 -0.12244898E+000  0.43037199E+001  0.82955115E-026
 -0.15789474E+001 -0.12244898E+000  0.44776562E+001  0.15141638E-025
 -0.15789474E+001 -0.12244898E+000  0.46515925E+001  0.27628796E-025
 -0.15789474E+001 -0.12244898E+000  0.48255288E+001  0.50403075E-025
 -0.15789474E+001 -0.12244898E+000  0.49994651E+001  0.91936750E-025
 -0.15789474E+001 -0.12244898E+000  0.51734014E+001  0.16767917E-024
 -0.15789474E+001 -0.12244898E+000  0.53473377E+001  0.30580237E-024
 -0.15789474E+001 -0.12244898E+000  0.55212740E+001  0.55767820E-024
 -0.15789474E+001 -0.12244898E+000  0.56952103E+001  0.10169833E-023
 -0.15789474E+001 -0.12244898E+000  0.58691466E+001  0.18545370E-023
 -0.15789474E+001 -0.12244898E+000  0.60430829E+001  0.33818278E-023
 -0.15789474E+001 -0.12244898E+000  0.62170192E+001  0.61668540E-023
 -0.15789474E+001 -0.12244898E+000  0.63909555E+001  0.11245358E-022
 -0.15789474E+001 -0.12244898E+000  0.65648918E+001  0.20506012E-022
 -0.15789474E+001 -0.12244898E+000  0.67388281E+001  0.37392800E-022
 -0.15789474E+001 -0.12244898E+000  0.69127644E+001  0.68185809E-022
 -0.15789474E+001 -0.12244898E+000  0.70867007E+001  0.12433674E-021
 -0.15789474E+001 -0.12244898E+000  0.72606370E+001  0.22672773E-021
 -0.15789474E+001 -0.12244898E+000  0.74345733E+001  0.41343720E-021
 -0.15789474E+001 -0.12244898E+000  0.76085096E+001  0.75390100E-021
 -0.15789474E+001 -0.12244898E+000  0.77824459E+001  0.13747350E-020
 -0.15789474E+001 -0.12244898E+000  0.79563822E+001  0.25068224E-020
 -0.15789474E+001 -0.12244898E+000  0.81303185E+001  0.45711777E-020
 -0.15789474E+001 -0.12244898E+000  0.83042548E+001  0.83355186E-020
 -0.15789474E+001 -0.12244898E+000  0.84781911E+001  0.15199774E-019
 -0.15789474E+001 -0.12244898E+000  0.86521274E+001  0.27716705E-019
 -0.15789474E+001 -0.12244898E+000  0.88260637E+001  0.50541261E-019
 -0.15789474E+001 -0.12244898E+000  0.90000000E+001  0.92161713E-019

 -0.15789474E+001  0.12244898E+000  0.47712125E+000 -0.28550605E-030
 -0.15789474E+001  0.12244898E+000  0.65105756E+000 -0.33969237E-030
 -0.15789474E+001  0.12244898E+000  0.82499386E+000 -0.39838762E-030
 -0.15789474E+001  0.12244898E+000  0.99893016E+000 -0.45641139E-030
 -0.15789474E+001  0.12244898E+000  0.11728665E+001 -0.50234546E-030
 -0.15789474E+001  0.12244898E+000  0.13468028E+001 -0.51295979E-030
 -0.15789474E+001  0.12244898E+000  0.15207391E+001 -0.44295154E-030
 -0.15789474E+001  0.12244898E+000  0.16946754E+001 -0.20611569E-030
 -0.15789474E+001  0.12244898E+000  0.18686117E+001  0.35913484E-030
 -0.15789474E+001  0.12244898E+000  0.20425480E+001  0.15528198E-029
 -0.15789474E+001  0.12244898E+000  0.22164843E+001  0.39285798E-029
 -0.15789474E+001  0.12244898E+000  0.23904206E+001  0.85039859E-029
 -0.15789474E+001  0.12244898E+000  0.25643569E+001  0.17144359E-028
 -0.15789474E+001  0.12244898E+000  0.27382932E+001  0.33263056E-028
 -0.15789474E+001  0.12244898E+000  0.29122295E+001  0.63098923E-028
 -0.15789474E+001  0.12244898E+000  0.30861658E+001  0.11804630E-027
 -0.15789474E+001  0.12244898E+000  0.32601021E+001  0.21890453E-027
 -0.15789474E+001  0.12244898E+000  0.34340384E+001  0.40362768E-027
 -0.15789474E+001  0.12244898E+000  0.36079747E+001  0.74145737E-027
 -0.15789474E+001  0.12244898E+000  0.37819110E+001  0.13586950E-026
 -0.15789474E+001  0.12244898E+000  0.39558473E+001  0.24856993E-026
 -0.15789474E+001  0.12244898E+000  0.41297836E+001  0.45425870E-026
 -0.15789474E+001  0.12244898E+000  0.43037199E+001  0.82955114E-026
 -0.15789474E+001  0.12244898E+000  0.44776562E+001  0.15141638E-025
 -0.15789474E+001  0.12244898E+000  0.46515925E+001  0.27628796E-025
 -0.15789474E+001  0.12244898E+000  0.48255288E+001  0.50403075E-025
 -0.15789474E+001  0.12244898E+000  0.49994651E+001  0.91936750E-025
 -0.15789474E+001  0.12244898E+000  0.51734014E+001  0.16767917E-024
 -0.15789474E+001  0.12244898E+000  0.53473377E+001  0.30580237E-024
 -0.15789474E+001  0.12244898E+000  0.55212740E+001  0.55767820E-024
 -0.15789474E+001  0.12244898E+000  0.56952103E+001  0.10169833E-023
 -0.15789474E+001  0.12244898E+000  0.58691466E+001  0.18545370E-023
 -0.15789474E+001  0.12244898E+000  0.60430829E+001  0.33818278E-023
 -0.15789474E+001  0.12244898E+000  0.62170192E+001  0.61668540E-023
 -0.15789474E+001  0.12244898E+000  0.63909555E+001  0.11245358E-022
 -0.15789474E+001  0.12244898E+000  0.65648918E+001  0.20506012E-022
 -0.15789474E+001  0.12244898E+000  0.67388281E+001  0.37392800E-022
 -0.15789474E+001  0.12244898E+000  0.69127644E+001  0.68185808E-022
 -0.15789474E+001  0.12244898E+000  0.70867007E+001  0.12433674E-021
 -0.15789474E+001  0.12244898E+000  0.72606370E+001  0.22672772E-021
 -0.15789474E+001  0.12244898E+000  0.74345733E+001  0.41343719E-021
 -0.15789474E+001  0.12244898E+000  0.76085096E+001  0.75390097E-021
 -0.15789474E+001  0.12244898E+000  0.77824459E+001  0.13747349E-020
 -0.15789474E+001  0.12244898E+000  0.79563822E+001  0.25068223E-020
 -0.15789474E+001  0.12244898E+000  0.81303185E+001  0.45711776E-020
 -0.15789474E+001  0.12244898E+000  0.83042548E+001  0.83355183E-020
 -0.15789474E+001  0.12244898E+000  0.84781911E+001  0.15199773E-019
 -0.15789474E+001  0.12244898E+000  0.86521274E+001  0.27716704E-019
 -0.15789474E+001  0.12244898E+000  0.88260637E+001  0.50541260E-019
 -0.15789474E+001  0.12244898E+000  0.90000000E+001  0.92161712E-019

 -0.15789474E+001  0.36734694E+000  0.47712125E+000 -0.28550605E-030
 -0.15789474E+001  0.36734694E+000  0.65105756E+000 -0.33969237E-030
 -0.15789474E+001  0.36734694E+000  0.82499386E+000 -0.39838762E-030
 -0.15789474E+001  0.36734694E+000  0.99893016E+000 -0.45641139E-030
 -0.15789474E+001  0.36734694E+000  0.11728665E+001 -0.50234546E-030
 -0.15789474E+001  0.36734694E+000  0.13468028E+001 -0.51295979E-030
 -0.15789474E+001  0.36734694E+000  0.15207391E+001 -0.44295154E-030
 -0.15789474E+001  0.36734694E+000  0.16946754E+001 -0.20611569E-030
 -0.15789474E+001  0.36734694E+000  0.18686117E+001  0.35913484E-030
 -0.15789474E+001  0.36734694E+000  0.20425480E+001  0.15528198E-029
 -0.15789474E+001  0.36734694E+000  0.22164843E+001  0.39285798E-029
 -0.15789474E+001  0.36734694E+000  0.23904206E+001  0.85039859E-029
 -0.15789474E+001  0.36734694E+000  0.25643569E+001  0.17144359E-028
 -0.15789474E+001  0.36734694E+000  0.27382932E+001  0.33263056E-028
 -0.15789474E+001  0.36734694E+000  0.29122295E+001  0.63098923E-028
 -0.15789474E+001  0.36734694E+000  0.30861658E+001  0.11804630E-027
 -0.15789474E+001  0.36734694E+000  0.32601021E+001  0.21890453E-027
 -0.15789474E+001  0.36734694E+000  0.34340384E+001  0.40362768E-027
 -0.15789474E+001  0.36734694E+000  0.36079747E+001  0.74145737E-027
 -0.15789474E+001  0.36734694E+000  0.37819110E+001  0.13586950E-026
 -0.15789474E+001  0.36734694E+000  0.39558473E+001  0.24856993E-026
 -0.15789474E+001  0.36734694E+000  0.41297836E+001  0.45425870E-026
 -0.15789474E+001  0.36734694E+000  0.43037199E+001  0.82955114E-026
 -0.15789474E+001  0.36734694E+000  0.44776562E+001  0.15141638E-025
 -0.15789474E+001  0.36734694E+000  0.46515925E+001  0.27628796E-025
 -0.15789474E+001  0.36734694E+000  0.48255288E+001  0.50403075E-025
 -0.15789474E+001  0.36734694E+000  0.49994651E+001  0.91936749E-025
 -0.15789474E+001  0.36734694E+000  0.51734014E+001  0.16767917E-024
 -0.15789474E+001  0.36734694E+000  0.53473377E+001  0.30580236E-024
 -0.15789474E+001  0.36734694E+000  0.55212740E+001  0.55767819E-024
 -0.15789474E+001  0.36734694E+000  0.56952103E+001  0.10169833E-023
 -0.15789474E+001  0.36734694E+000  0.58691466E+001  0.18545370E-023
 -0.15789474E+001  0.36734694E+000  0.60430829E+001  0.33818277E-023
 -0.15789474E+001  0.36734694E+000  0.62170192E+001  0.61668539E-023
 -0.15789474E+001  0.36734694E+000  0.63909555E+001  0.11245358E-022
 -0.15789474E+001  0.36734694E+000  0.65648918E+001  0.20506012E-022
 -0.15789474E+001  0.36734694E+000  0.67388281E+001  0.37392799E-022
 -0.15789474E+001  0.36734694E+000  0.69127644E+001  0.68185806E-022
 -0.15789474E+001  0.36734694E+000  0.70867007E+001  0.12433674E-021
 -0.15789474E+001  0.36734694E+000  0.72606370E+001  0.22672771E-021
 -0.15789474E+001  0.36734694E+000  0.74345733E+001  0.41343717E-021
 -0.15789474E+001  0.36734694E+000  0.76085096E+001  0.75390093E-021
 -0.15789474E+001  0.36734694E+000  0.77824459E+001  0.13747348E-020
 -0.15789474E+001  0.36734694E+000  0.79563822E+001  0.25068222E-020
 -0.15789474E+001  0.36734694E+000  0.81303185E+001  0.45711774E-020
 -0.15789474E+001  0.36734694E+000  0.83042548E+001  0.83355180E-020
 -0.15789474E+001  0.36734694E+000  0.84781911E+001  0.15199773E-019
 -0.15789474E+001  0.36734694E+000  0.86521274E+001  0.27716704E-019
 -0.15789474E+001  0.36734694E+000  0.88260637E+001  0.50541259E-019
 -0.15789474E+001  0.36734694E+000  0.90000000E+001  0.92161710E-019

 -0.15789474E+001  0.61224490E+000  0.47712125E+000 -0.28550605E-030
 -0.15789474E+001  0.61224490E+000  0.65105756E+000 -0.33969237E-030
 -0.15789474E+001  0.61224490E+000  0.82499386E+000 -0.39838762E-030
 -0.15789474E+001  0.61224490E+000  0.99893016E+000 -0.45641139E-030
 -0.15789474E+001  0.61224490E+000  0.11728665E+001 -0.50234546E-030
 -0.15789474E+001  0.61224490E+000  0.13468028E+001 -0.51295979E-030
 -0.15789474E+001  0.61224490E+000  0.15207391E+001 -0.44295154E-030
 -0.15789474E+001  0.61224490E+000  0.16946754E+001 -0.20611569E-030
 -0.15789474E+001  0.61224490E+000  0.18686117E+001  0.35913484E-030
 -0.15789474E+001  0.61224490E+000  0.20425480E+001  0.15528198E-029
 -0.15789474E+001  0.61224490E+000  0.22164843E+001  0.39285798E-029
 -0.15789474E+001  0.61224490E+000  0.23904206E+001  0.85039858E-029
 -0.15789474E+001  0.61224490E+000  0.25643569E+001  0.17144359E-028
 -0.15789474E+001  0.61224490E+000  0.27382932E+001  0.33263056E-028
 -0.15789474E+001  0.61224490E+000  0.29122295E+001  0.63098923E-028
 -0.15789474E+001  0.61224490E+000  0.30861658E+001  0.11804630E-027
 -0.15789474E+001  0.61224490E+000  0.32601021E+001  0.21890453E-027
 -0.15789474E+001  0.61224490E+000  0.34340384E+001  0.40362768E-027
 -0.15789474E+001  0.61224490E+000  0.36079747E+001  0.74145736E-027
 -0.15789474E+001  0.61224490E+000  0.37819110E+001  0.13586950E-026
 -0.15789474E+001  0.61224490E+000  0.39558473E+001  0.24856993E-026
 -0.15789474E+001  0.61224490E+000  0.41297836E+001  0.45425869E-026
 -0.15789474E+001  0.61224490E+000  0.43037199E+001  0.82955114E-026
 -0.15789474E+001  0.61224490E+000  0.44776562E+001  0.15141638E-025
 -0.15789474E+001  0.61224490E+000  0.46515925E+001  0.27628796E-025
 -0.15789474E+001  0.61224490E+000  0.48255288E+001  0.50403075E-025
 -0.15789474E+001  0.61224490E+000  0.49994651E+001  0.91936749E-025
 -0.15789474E+001  0.61224490E+000  0.51734014E+001  0.16767916E-024
 -0.15789474E+001  0.61224490E+000  0.53473377E+001  0.30580236E-024
 -0.15789474E+001  0.61224490E+000  0.55212740E+001  0.55767818E-024
 -0.15789474E+001  0.61224490E+000  0.56952103E+001  0.10169833E-023
 -0.15789474E+001  0.61224490E+000  0.58691466E+001  0.18545369E-023
 -0.15789474E+001  0.61224490E+000  0.60430829E+001  0.33818276E-023
 -0.15789474E+001  0.61224490E+000  0.62170192E+001  0.61668537E-023
 -0.15789474E+001  0.61224490E+000  0.63909555E+001  0.11245358E-022
 -0.15789474E+001  0.61224490E+000  0.65648918E+001  0.20506011E-022
 -0.15789474E+001  0.61224490E+000  0.67388281E+001  0.37392797E-022
 -0.15789474E+001  0.61224490E+000  0.69127644E+001  0.68185802E-022
 -0.15789474E+001  0.61224490E+000  0.70867007E+001  0.12433673E-021
 -0.15789474E+001  0.61224490E+000  0.72606370E+001  0.22672770E-021
 -0.15789474E+001  0.61224490E+000  0.74345733E+001  0.41343714E-021
 -0.15789474E+001  0.61224490E+000  0.76085096E+001  0.75390087E-021
 -0.15789474E+001  0.61224490E+000  0.77824459E+001  0.13747347E-020
 -0.15789474E+001  0.61224490E+000  0.79563822E+001  0.25068220E-020
 -0.15789474E+001  0.61224490E+000  0.81303185E+001  0.45711771E-020
 -0.15789474E+001  0.61224490E+000  0.83042548E+001  0.83355175E-020
 -0.15789474E+001  0.61224490E+000  0.84781911E+001  0.15199772E-019
 -0.15789474E+001  0.61224490E+000  0.86521274E+001  0.27716703E-019
 -0.15789474E+001  0.61224490E+000  0.88260637E+001  0.50541257E-019
 -0.15789474E+001  0.61224490E+000  0.90000000E+001  0.92161708E-019

 -0.15789474E+001  0.85714286E+000  0.47712125E+000 -0.28550605E-030
 -0.15789474E+001  0.85714286E+000  0.65105756E+000 -0.33969237E-030
 -0.15789474E+001  0.85714286E+000  0.82499386E+000 -0.39838762E-030
 -0.15789474E+001  0.85714286E+000  0.99893016E+000 -0.45641139E-030
 -0.15789474E+001  0.85714286E+000  0.11728665E+001 -0.50234546E-030
 -0.15789474E+001  0.85714286E+000  0.13468028E+001 -0.51295979E-030
 -0.15789474E+001  0.85714286E+000  0.15207391E+001 -0.44295154E-030
 -0.15789474E+001  0.85714286E+000  0.16946754E+001 -0.20611569E-030
 -0.15789474E+001  0.85714286E+000  0.18686117E+001  0.35913484E-030
 -0.15789474E+001  0.85714286E+000  0.20425480E+001  0.15528198E-029
 -0.15789474E+001  0.85714286E+000  0.22164843E+001  0.39285798E-029
 -0.15789474E+001  0.85714286E+000  0.23904206E+001  0.85039858E-029
 -0.15789474E+001  0.85714286E+000  0.25643569E+001  0.17144359E-028
 -0.15789474E+001  0.85714286E+000  0.27382932E+001  0.33263056E-028
 -0.15789474E+001  0.85714286E+000  0.29122295E+001  0.63098923E-028
 -0.15789474E+001  0.85714286E+000  0.30861658E+001  0.11804630E-027
 -0.15789474E+001  0.85714286E+000  0.32601021E+001  0.21890453E-027
 -0.15789474E+001  0.85714286E+000  0.34340384E+001  0.40362767E-027
 -0.15789474E+001  0.85714286E+000  0.36079747E+001  0.74145736E-027
 -0.15789474E+001  0.85714286E+000  0.37819110E+001  0.13586950E-026
 -0.15789474E+001  0.85714286E+000  0.39558473E+001  0.24856993E-026
 -0.15789474E+001  0.85714286E+000  0.41297836E+001  0.45425869E-026
 -0.15789474E+001  0.85714286E+000  0.43037199E+001  0.82955114E-026
 -0.15789474E+001  0.85714286E+000  0.44776562E+001  0.15141637E-025
 -0.15789474E+001  0.85714286E+000  0.46515925E+001  0.27628796E-025
 -0.15789474E+001  0.85714286E+000  0.48255288E+001  0.50403074E-025
 -0.15789474E+001  0.85714286E+000  0.49994651E+001  0.91936748E-025
 -0.15789474E+001  0.85714286E+000  0.51734014E+001  0.16767916E-024
 -0.15789474E+001  0.85714286E+000  0.53473377E+001  0.30580235E-024
 -0.15789474E+001  0.85714286E+000  0.55212740E+001  0.55767817E-024
 -0.15789474E+001  0.85714286E+000  0.56952103E+001  0.10169833E-023
 -0.15789474E+001  0.85714286E+000  0.58691466E+001  0.18545369E-023
 -0.15789474E+001  0.85714286E+000  0.60430829E+001  0.33818275E-023
 -0.15789474E+001  0.85714286E+000  0.62170192E+001  0.61668534E-023
 -0.15789474E+001  0.85714286E+000  0.63909555E+001  0.11245357E-022
 -0.15789474E+001  0.85714286E+000  0.65648918E+001  0.20506009E-022
 -0.15789474E+001  0.85714286E+000  0.67388281E+001  0.37392794E-022
 -0.15789474E+001  0.85714286E+000  0.69127644E+001  0.68185795E-022
 -0.15789474E+001  0.85714286E+000  0.70867007E+001  0.12433671E-021
 -0.15789474E+001  0.85714286E+000  0.72606370E+001  0.22672767E-021
 -0.15789474E+001  0.85714286E+000  0.74345733E+001  0.41343709E-021
 -0.15789474E+001  0.85714286E+000  0.76085096E+001  0.75390078E-021
 -0.15789474E+001  0.85714286E+000  0.77824459E+001  0.13747346E-020
 -0.15789474E+001  0.85714286E+000  0.79563822E+001  0.25068218E-020
 -0.15789474E+001  0.85714286E+000  0.81303185E+001  0.45711768E-020
 -0.15789474E+001  0.85714286E+000  0.83042548E+001  0.83355170E-020
 -0.15789474E+001  0.85714286E+000  0.84781911E+001  0.15199771E-019
 -0.15789474E+001  0.85714286E+000  0.86521274E+001  0.27716702E-019
 -0.15789474E+001  0.85714286E+000  0.88260637E+001  0.50541256E-019
 -0.15789474E+001  0.85714286E+000  0.90000000E+001  0.92161706E-019

 -0.15789474E+001  0.11020408E+001  0.47712125E+000 -0.28550605E-030
 -0.15789474E+001  0.11020408E+001  0.65105756E+000 -0.33969237E-030
 -0.15789474E+001  0.11020408E+001  0.82499386E+000 -0.39838762E-030
 -0.15789474E+001  0.11020408E+001  0.99893016E+000 -0.45641139E-030
 -0.15789474E+001  0.11020408E+001  0.11728665E+001 -0.50234546E-030
 -0.15789474E+001  0.11020408E+001  0.13468028E+001 -0.51295979E-030
 -0.15789474E+001  0.11020408E+001  0.15207391E+001 -0.44295154E-030
 -0.15789474E+001  0.11020408E+001  0.16946754E+001 -0.20611569E-030
 -0.15789474E+001  0.11020408E+001  0.18686117E+001  0.35913483E-030
 -0.15789474E+001  0.11020408E+001  0.20425480E+001  0.15528198E-029
 -0.15789474E+001  0.11020408E+001  0.22164843E+001  0.39285798E-029
 -0.15789474E+001  0.11020408E+001  0.23904206E+001  0.85039858E-029
 -0.15789474E+001  0.11020408E+001  0.25643569E+001  0.17144359E-028
 -0.15789474E+001  0.11020408E+001  0.27382932E+001  0.33263056E-028
 -0.15789474E+001  0.11020408E+001  0.29122295E+001  0.63098923E-028
 -0.15789474E+001  0.11020408E+001  0.30861658E+001  0.11804630E-027
 -0.15789474E+001  0.11020408E+001  0.32601021E+001  0.21890452E-027
 -0.15789474E+001  0.11020408E+001  0.34340384E+001  0.40362767E-027
 -0.15789474E+001  0.11020408E+001  0.36079747E+001  0.74145736E-027
 -0.15789474E+001  0.11020408E+001  0.37819110E+001  0.13586950E-026
 -0.15789474E+001  0.11020408E+001  0.39558473E+001  0.24856992E-026
 -0.15789474E+001  0.11020408E+001  0.41297836E+001  0.45425869E-026
 -0.15789474E+001  0.11020408E+001  0.43037199E+001  0.82955113E-026
 -0.15789474E+001  0.11020408E+001  0.44776562E+001  0.15141637E-025
 -0.15789474E+001  0.11020408E+001  0.46515925E+001  0.27628796E-025
 -0.15789474E+001  0.11020408E+001  0.48255288E+001  0.50403073E-025
 -0.15789474E+001  0.11020408E+001  0.49994651E+001  0.91936746E-025
 -0.15789474E+001  0.11020408E+001  0.51734014E+001  0.16767916E-024
 -0.15789474E+001  0.11020408E+001  0.53473377E+001  0.30580235E-024
 -0.15789474E+001  0.11020408E+001  0.55212740E+001  0.55767815E-024
 -0.15789474E+001  0.11020408E+001  0.56952103E+001  0.10169832E-023
 -0.15789474E+001  0.11020408E+001  0.58691466E+001  0.18545367E-023
 -0.15789474E+001  0.11020408E+001  0.60430829E+001  0.33818273E-023
 -0.15789474E+001  0.11020408E+001  0.62170192E+001  0.61668529E-023
 -0.15789474E+001  0.11020408E+001  0.63909555E+001  0.11245356E-022
 -0.15789474E+001  0.11020408E+001  0.65648918E+001  0.20506007E-022
 -0.15789474E+001  0.11020408E+001  0.67388281E+001  0.37392789E-022
 -0.15789474E+001  0.11020408E+001  0.69127644E+001  0.68185784E-022
 -0.15789474E+001  0.11020408E+001  0.70867007E+001  0.12433669E-021
 -0.15789474E+001  0.11020408E+001  0.72606370E+001  0.22672763E-021
 -0.15789474E+001  0.11020408E+001  0.74345733E+001  0.41343702E-021
 -0.15789474E+001  0.11020408E+001  0.76085096E+001  0.75390067E-021
 -0.15789474E+001  0.11020408E+001  0.77824459E+001  0.13747344E-020
 -0.15789474E+001  0.11020408E+001  0.79563822E+001  0.25068215E-020
 -0.15789474E+001  0.11020408E+001  0.81303185E+001  0.45711763E-020
 -0.15789474E+001  0.11020408E+001  0.83042548E+001  0.83355164E-020
 -0.15789474E+001  0.11020408E+001  0.84781911E+001  0.15199770E-019
 -0.15789474E+001  0.11020408E+001  0.86521274E+001  0.27716700E-019
 -0.15789474E+001  0.11020408E+001  0.88260637E+001  0.50541254E-019
 -0.15789474E+001  0.11020408E+001  0.90000000E+001  0.92161704E-019

 -0.15789474E+001  0.13469388E+001  0.47712125E+000 -0.28550605E-030
 -0.15789474E+001  0.13469388E+001  0.65105756E+000 -0.33969237E-030
 -0.15789474E+001  0.13469388E+001  0.82499386E+000 -0.39838761E-030
 -0.15789474E+001  0.13469388E+001  0.99893016E+000 -0.45641139E-030
 -0.15789474E+001  0.13469388E+001  0.11728665E+001 -0.50234545E-030
 -0.15789474E+001  0.13469388E+001  0.13468028E+001 -0.51295979E-030
 -0.15789474E+001  0.13469388E+001  0.15207391E+001 -0.44295154E-030
 -0.15789474E+001  0.13469388E+001  0.16946754E+001 -0.20611569E-030
 -0.15789474E+001  0.13469388E+001  0.18686117E+001  0.35913483E-030
 -0.15789474E+001  0.13469388E+001  0.20425480E+001  0.15528198E-029
 -0.15789474E+001  0.13469388E+001  0.22164843E+001  0.39285798E-029
 -0.15789474E+001  0.13469388E+001  0.23904206E+001  0.85039858E-029
 -0.15789474E+001  0.13469388E+001  0.25643569E+001  0.17144359E-028
 -0.15789474E+001  0.13469388E+001  0.27382932E+001  0.33263056E-028
 -0.15789474E+001  0.13469388E+001  0.29122295E+001  0.63098923E-028
 -0.15789474E+001  0.13469388E+001  0.30861658E+001  0.11804630E-027
 -0.15789474E+001  0.13469388E+001  0.32601021E+001  0.21890452E-027
 -0.15789474E+001  0.13469388E+001  0.34340384E+001  0.40362767E-027
 -0.15789474E+001  0.13469388E+001  0.36079747E+001  0.74145735E-027
 -0.15789474E+001  0.13469388E+001  0.37819110E+001  0.13586950E-026
 -0.15789474E+001  0.13469388E+001  0.39558473E+001  0.24856992E-026
 -0.15789474E+001  0.13469388E+001  0.41297836E+001  0.45425868E-026
 -0.15789474E+001  0.13469388E+001  0.43037199E+001  0.82955111E-026
 -0.15789474E+001  0.13469388E+001  0.44776562E+001  0.15141637E-025
 -0.15789474E+001  0.13469388E+001  0.46515925E+001  0.27628795E-025
 -0.15789474E+001  0.13469388E+001  0.48255288E+001  0.50403072E-025
 -0.15789474E+001  0.13469388E+001  0.49994651E+001  0.91936742E-025
 -0.15789474E+001  0.13469388E+001  0.51734014E+001  0.16767915E-024
 -0.15789474E+001  0.13469388E+001  0.53473377E+001  0.30580233E-024
 -0.15789474E+001  0.13469388E+001  0.55212740E+001  0.55767811E-024
 -0.15789474E+001  0.13469388E+001  0.56952103E+001  0.10169831E-023
 -0.15789474E+001  0.13469388E+001  0.58691466E+001  0.18545366E-023
 -0.15789474E+001  0.13469388E+001  0.60430829E+001  0.33818269E-023
 -0.15789474E+001  0.13469388E+001  0.62170192E+001  0.61668520E-023
 -0.15789474E+001  0.13469388E+001  0.63909555E+001  0.11245354E-022
 -0.15789474E+001  0.13469388E+001  0.65648918E+001  0.20506003E-022
 -0.15789474E+001  0.13469388E+001  0.67388281E+001  0.37392780E-022
 -0.15789474E+001  0.13469388E+001  0.69127644E+001  0.68185768E-022
 -0.15789474E+001  0.13469388E+001  0.70867007E+001  0.12433666E-021
 -0.15789474E+001  0.13469388E+001  0.72606370E+001  0.22672758E-021
 -0.15789474E+001  0.13469388E+001  0.74345733E+001  0.41343693E-021
 -0.15789474E+001  0.13469388E+001  0.76085096E+001  0.75390053E-021
 -0.15789474E+001  0.13469388E+001  0.77824459E+001  0.13747342E-020
 -0.15789474E+001  0.13469388E+001  0.79563822E+001  0.25068212E-020
 -0.15789474E+001  0.13469388E+001  0.81303185E+001  0.45711759E-020
 -0.15789474E+001  0.13469388E+001  0.83042548E+001  0.83355157E-020
 -0.15789474E+001  0.13469388E+001  0.84781911E+001  0.15199769E-019
 -0.15789474E+001  0.13469388E+001  0.86521274E+001  0.27716699E-019
 -0.15789474E+001  0.13469388E+001  0.88260637E+001  0.50541252E-019
 -0.15789474E+001  0.13469388E+001  0.90000000E+001  0.92161701E-019

 -0.15789474E+001  0.15918367E+001  0.47712125E+000 -0.28550605E-030
 -0.15789474E+001  0.15918367E+001  0.65105756E+000 -0.33969237E-030
 -0.15789474E+001  0.15918367E+001  0.82499386E+000 -0.39838761E-030
 -0.15789474E+001  0.15918367E+001  0.99893016E+000 -0.45641139E-030
 -0.15789474E+001  0.15918367E+001  0.11728665E+001 -0.50234545E-030
 -0.15789474E+001  0.15918367E+001  0.13468028E+001 -0.51295979E-030
 -0.15789474E+001  0.15918367E+001  0.15207391E+001 -0.44295154E-030
 -0.15789474E+001  0.15918367E+001  0.16946754E+001 -0.20611569E-030
 -0.15789474E+001  0.15918367E+001  0.18686117E+001  0.35913483E-030
 -0.15789474E+001  0.15918367E+001  0.20425480E+001  0.15528198E-029
 -0.15789474E+001  0.15918367E+001  0.22164843E+001  0.39285798E-029
 -0.15789474E+001  0.15918367E+001  0.23904206E+001  0.85039858E-029
 -0.15789474E+001  0.15918367E+001  0.25643569E+001  0.17144359E-028
 -0.15789474E+001  0.15918367E+001  0.27382932E+001  0.33263056E-028
 -0.15789474E+001  0.15918367E+001  0.29122295E+001  0.63098922E-028
 -0.15789474E+001  0.15918367E+001  0.30861658E+001  0.11804630E-027
 -0.15789474E+001  0.15918367E+001  0.32601021E+001  0.21890452E-027
 -0.15789474E+001  0.15918367E+001  0.34340384E+001  0.40362767E-027
 -0.15789474E+001  0.15918367E+001  0.36079747E+001  0.74145734E-027
 -0.15789474E+001  0.15918367E+001  0.37819110E+001  0.13586950E-026
 -0.15789474E+001  0.15918367E+001  0.39558473E+001  0.24856992E-026
 -0.15789474E+001  0.15918367E+001  0.41297836E+001  0.45425867E-026
 -0.15789474E+001  0.15918367E+001  0.43037199E+001  0.82955109E-026
 -0.15789474E+001  0.15918367E+001  0.44776562E+001  0.15141636E-025
 -0.15789474E+001  0.15918367E+001  0.46515925E+001  0.27628794E-025
 -0.15789474E+001  0.15918367E+001  0.48255288E+001  0.50403069E-025
 -0.15789474E+001  0.15918367E+001  0.49994651E+001  0.91936736E-025
 -0.15789474E+001  0.15918367E+001  0.51734014E+001  0.16767914E-024
 -0.15789474E+001  0.15918367E+001  0.53473377E+001  0.30580230E-024
 -0.15789474E+001  0.15918367E+001  0.55212740E+001  0.55767805E-024
 -0.15789474E+001  0.15918367E+001  0.56952103E+001  0.10169830E-023
 -0.15789474E+001  0.15918367E+001  0.58691466E+001  0.18545362E-023
 -0.15789474E+001  0.15918367E+001  0.60430829E+001  0.33818261E-023
 -0.15789474E+001  0.15918367E+001  0.62170192E+001  0.61668504E-023
 -0.15789474E+001  0.15918367E+001  0.63909555E+001  0.11245351E-022
 -0.15789474E+001  0.15918367E+001  0.65648918E+001  0.20505996E-022
 -0.15789474E+001  0.15918367E+001  0.67388281E+001  0.37392767E-022
 -0.15789474E+001  0.15918367E+001  0.69127644E+001  0.68185743E-022
 -0.15789474E+001  0.15918367E+001  0.70867007E+001  0.12433662E-021
 -0.15789474E+001  0.15918367E+001  0.72606370E+001  0.22672750E-021
 -0.15789474E+001  0.15918367E+001  0.74345733E+001  0.41343682E-021
 -0.15789474E+001  0.15918367E+001  0.76085096E+001  0.75390035E-021
 -0.15789474E+001  0.15918367E+001  0.77824459E+001  0.13747339E-020
 -0.15789474E+001  0.15918367E+001  0.79563822E+001  0.25068208E-020
 -0.15789474E+001  0.15918367E+001  0.81303185E+001  0.45711753E-020
 -0.15789474E+001  0.15918367E+001  0.83042548E+001  0.83355149E-020
 -0.15789474E+001  0.15918367E+001  0.84781911E+001  0.15199768E-019
 -0.15789474E+001  0.15918367E+001  0.86521274E+001  0.27716697E-019
 -0.15789474E+001  0.15918367E+001  0.88260637E+001  0.50541250E-019
 -0.15789474E+001  0.15918367E+001  0.90000000E+001  0.92161698E-019

 -0.15789474E+001  0.18367347E+001  0.47712125E+000 -0.28550605E-030
 -0.15789474E+001  0.18367347E+001  0.65105756E+000 -0.33969237E-030
 -0.15789474E+001  0.18367347E+001  0.82499386E+000 -0.39838761E-030
 -0.15789474E+001  0.18367347E+001  0.99893016E+000 -0.45641139E-030
 -0.15789474E+001  0.18367347E+001  0.11728665E+001 -0.50234545E-030
 -0.15789474E+001  0.18367347E+001  0.13468028E+001 -0.51295979E-030
 -0.15789474E+001  0.18367347E+001  0.15207391E+001 -0.44295154E-030
 -0.15789474E+001  0.18367347E+001  0.16946754E+001 -0.20611569E-030
 -0.15789474E+001  0.18367347E+001  0.18686117E+001  0.35913483E-030
 -0.15789474E+001  0.18367347E+001  0.20425480E+001  0.15528197E-029
 -0.15789474E+001  0.18367347E+001  0.22164843E+001  0.39285798E-029
 -0.15789474E+001  0.18367347E+001  0.23904206E+001  0.85039857E-029
 -0.15789474E+001  0.18367347E+001  0.25643569E+001  0.17144358E-028
 -0.15789474E+001  0.18367347E+001  0.27382932E+001  0.33263055E-028
 -0.15789474E+001  0.18367347E+001  0.29122295E+001  0.63098922E-028
 -0.15789474E+001  0.18367347E+001  0.30861658E+001  0.11804630E-027
 -0.15789474E+001  0.18367347E+001  0.32601021E+001  0.21890452E-027
 -0.15789474E+001  0.18367347E+001  0.34340384E+001  0.40362766E-027
 -0.15789474E+001  0.18367347E+001  0.36079747E+001  0.74145733E-027
 -0.15789474E+001  0.18367347E+001  0.37819110E+001  0.13586950E-026
 -0.15789474E+001  0.18367347E+001  0.39558473E+001  0.24856991E-026
 -0.15789474E+001  0.18367347E+001  0.41297836E+001  0.45425865E-026
 -0.15789474E+001  0.18367347E+001  0.43037199E+001  0.82955105E-026
 -0.15789474E+001  0.18367347E+001  0.44776562E+001  0.15141635E-025
 -0.15789474E+001  0.18367347E+001  0.46515925E+001  0.27628791E-025
 -0.15789474E+001  0.18367347E+001  0.48255288E+001  0.50403064E-025
 -0.15789474E+001  0.18367347E+001  0.49994651E+001  0.91936726E-025
 -0.15789474E+001  0.18367347E+001  0.51734014E+001  0.16767911E-024
 -0.15789474E+001  0.18367347E+001  0.53473377E+001  0.30580225E-024
 -0.15789474E+001  0.18367347E+001  0.55212740E+001  0.55767793E-024
 -0.15789474E+001  0.18367347E+001  0.56952103E+001  0.10169827E-023
 -0.15789474E+001  0.18367347E+001  0.58691466E+001  0.18545357E-023
 -0.15789474E+001  0.18367347E+001  0.60430829E+001  0.33818249E-023
 -0.15789474E+001  0.18367347E+001  0.62170192E+001  0.61668479E-023
 -0.15789474E+001  0.18367347E+001  0.63909555E+001  0.11245345E-022
 -0.15789474E+001  0.18367347E+001  0.65648918E+001  0.20505986E-022
 -0.15789474E+001  0.18367347E+001  0.67388281E+001  0.37392747E-022
 -0.15789474E+001  0.18367347E+001  0.69127644E+001  0.68185709E-022
 -0.15789474E+001  0.18367347E+001  0.70867007E+001  0.12433656E-021
 -0.15789474E+001  0.18367347E+001  0.72606370E+001  0.22672741E-021
 -0.15789474E+001  0.18367347E+001  0.74345733E+001  0.41343667E-021
 -0.15789474E+001  0.18367347E+001  0.76085096E+001  0.75390013E-021
 -0.15789474E+001  0.18367347E+001  0.77824459E+001  0.13747336E-020
 -0.15789474E+001  0.18367347E+001  0.79563822E+001  0.25068203E-020
 -0.15789474E+001  0.18367347E+001  0.81303185E+001  0.45711746E-020
 -0.15789474E+001  0.18367347E+001  0.83042548E+001  0.83355140E-020
 -0.15789474E+001  0.18367347E+001  0.84781911E+001  0.15199767E-019
 -0.15789474E+001  0.18367347E+001  0.86521274E+001  0.27716696E-019
 -0.15789474E+001  0.18367347E+001  0.88260637E+001  0.50541248E-019
 -0.15789474E+001  0.18367347E+001  0.90000000E+001  0.92161695E-019

 -0.15789474E+001  0.20816327E+001  0.47712125E+000 -0.28550605E-030
 -0.15789474E+001  0.20816327E+001  0.65105756E+000 -0.33969236E-030
 -0.15789474E+001  0.20816327E+001  0.82499386E+000 -0.39838761E-030
 -0.15789474E+001  0.20816327E+001  0.99893016E+000 -0.45641139E-030
 -0.15789474E+001  0.20816327E+001  0.11728665E+001 -0.50234545E-030
 -0.15789474E+001  0.20816327E+001  0.13468028E+001 -0.51295979E-030
 -0.15789474E+001  0.20816327E+001  0.15207391E+001 -0.44295154E-030
 -0.15789474E+001  0.20816327E+001  0.16946754E+001 -0.20611569E-030
 -0.15789474E+001  0.20816327E+001  0.18686117E+001  0.35913483E-030
 -0.15789474E+001  0.20816327E+001  0.20425480E+001  0.15528197E-029
 -0.15789474E+001  0.20816327E+001  0.22164843E+001  0.39285797E-029
 -0.15789474E+001  0.20816327E+001  0.23904206E+001  0.85039857E-029
 -0.15789474E+001  0.20816327E+001  0.25643569E+001  0.17144358E-028
 -0.15789474E+001  0.20816327E+001  0.27382932E+001  0.33263055E-028
 -0.15789474E+001  0.20816327E+001  0.29122295E+001  0.63098921E-028
 -0.15789474E+001  0.20816327E+001  0.30861658E+001  0.11804630E-027
 -0.15789474E+001  0.20816327E+001  0.32601021E+001  0.21890451E-027
 -0.15789474E+001  0.20816327E+001  0.34340384E+001  0.40362765E-027
 -0.15789474E+001  0.20816327E+001  0.36079747E+001  0.74145730E-027
 -0.15789474E+001  0.20816327E+001  0.37819110E+001  0.13586949E-026
 -0.15789474E+001  0.20816327E+001  0.39558473E+001  0.24856989E-026
 -0.15789474E+001  0.20816327E+001  0.41297836E+001  0.45425862E-026
 -0.15789474E+001  0.20816327E+001  0.43037199E+001  0.82955097E-026
 -0.15789474E+001  0.20816327E+001  0.44776562E+001  0.15141634E-025
 -0.15789474E+001  0.20816327E+001  0.46515925E+001  0.27628788E-025
 -0.15789474E+001  0.20816327E+001  0.48255288E+001  0.50403056E-025
 -0.15789474E+001  0.20816327E+001  0.49994651E+001  0.91936707E-025
 -0.15789474E+001  0.20816327E+001  0.51734014E+001  0.16767907E-024
 -0.15789474E+001  0.20816327E+001  0.53473377E+001  0.30580215E-024
